ply
format ascii 1.0
element vertex 804
property float x
property float y
property float z
property int group_id
end_header
0.000000 0.000000 0.000000 0
0.010000 -0.000079 -0.000052 0
0.019996 -0.000314 -0.000209 0
0.029988 -0.000707 -0.000471 0
0.039971 -0.001256 -0.000838 0
0.049944 -0.001962 -0.001309 0
0.059904 -0.002825 -0.001885 0
0.069847 -0.003844 -0.002565 0
0.079772 -0.005019 -0.003350 0
0.089676 -0.006349 -0.004240 0
0.099555 -0.007835 -0.005234 0
0.109408 -0.009476 -0.006332 0
0.119232 -0.011271 -0.007535 0
0.129024 -0.013219 -0.008842 0
0.138781 -0.015322 -0.010253 0
0.148501 -0.017576 -0.011769 0
0.158182 -0.019983 -0.013388 0
0.167820 -0.022541 -0.015112 0
0.177413 -0.025250 -0.016939 0
0.186959 -0.028108 -0.018871 0
0.196456 -0.031116 -0.020906 0
0.205899 -0.034271 -0.023044 0
0.215288 -0.037574 -0.025286 0
0.224619 -0.041023 -0.027631 0
0.233890 -0.044617 -0.030080 0
0.243099 -0.048355 -0.032632 0
0.252242 -0.052237 -0.035286 0
0.261319 -0.056260 -0.038043 0
0.270325 -0.060425 -0.040903 0
0.279260 -0.064729 -0.043866 0
0.288120 -0.069171 -0.046930 0
0.296902 -0.073751 -0.050097 0
0.305606 -0.078466 -0.053366 0
0.314228 -0.083316 -0.056737 0
0.322766 -0.088299 -0.060209 0
0.331219 -0.093413 -0.063782 0
0.339582 -0.098658 -0.067457 0
0.347855 -0.104031 -0.071233 0
0.356036 -0.109531 -0.075110 0
0.364121 -0.115156 -0.079087 0
0.372109 -0.120906 -0.083165 0
0.379999 -0.126777 -0.087342 0
0.387786 -0.132769 -0.091620 0
0.395471 -0.138879 -0.095998 0
0.403050 -0.145107 -0.100474 0
0.410521 -0.151449 -0.105050 0
0.417883 -0.157905 -0.109725 0
0.425134 -0.164472 -0.114499 0
0.432272 -0.171148 -0.119371 0
0.439294 -0.177932 -0.124341 0
0.446200 -0.184822 -0.129410 0
0.452986 -0.191815 -0.134575 0
0.459652 -0.198909 -0.139838 0
0.466196 -0.206103 -0.145198 0
0.472616 -0.213394 -0.150655 0
0.478910 -0.220781 -0.156208 0
0.485077 -0.228260 -0.161858 0
0.491115 -0.235830 -0.167603 0
0.497022 -0.243488 -0.173444 0
0.502797 -0.251233 -0.179380 0
0.508439 -0.259062 -0.185410 0
0.513945 -0.266973 -0.191535 0
0.519315 -0.274963 -0.197755 0
0.524547 -0.283030 -0.204068 0
0.529641 -0.291172 -0.210475 0
0.534593 -0.299387 -0.216974 0
0.539404 -0.307671 -0.223567 0
0.000000 0.000000 0.000000 0
0.010000 -0.000079 0.000000 0
0.019998 -0.000314 0.000000 0
0.029992 -0.000707 0.000000 0
0.039980 -0.001256 0.000000 0
0.049961 -0.001963 0.000000 0
0.059933 -0.002826 0.000000 0
0.069894 -0.003847 0.000000 0
0.079842 -0.005023 0.000000 0
0.089775 -0.006356 0.000000 0
0.099692 -0.007846 0.000000 0
0.109590 -0.009492 0.000000 0
0.119467 -0.011293 0.000000 0
0.129323 -0.013250 0.000000 0
0.139155 -0.015363 0.000000 0
0.148960 -0.017631 0.000000 0
0.158738 -0.020053 0.000000 0
0.168487 -0.022631 0.000000 0
0.178204 -0.025362 0.000000 0
0.187888 -0.028248 0.000000 0
0.197538 -0.031287 0.000000 0
0.207150 -0.034479 0.000000 0
0.216724 -0.037824 0.000000 0
0.226258 -0.041322 0.000000 0
0.235749 -0.044972 0.000000 0
0.245196 -0.048773 0.000000 0
0.254598 -0.052725 0.000000 0
0.263952 -0.056827 0.000000 0
0.273257 -0.061080 0.000000 0
0.282510 -0.065482 0.000000 0
0.291711 -0.070034 0.000000 0
0.300857 -0.074733 0.000000 0
0.309947 -0.079581 0.000000 0
0.318978 -0.084575 0.000000 0
0.327950 -0.089717 0.000000 0
0.336859 -0.095004 0.000000 0
0.345706 -0.100437 0.000000 0
0.354487 -0.106014 0.000000 0
0.363201 -0.111735 0.000000 0
0.371847 -0.117600 0.000000 0
0.380423 -0.123607 0.000000 0
0.388926 -0.129756 0.000000 0
0.397356 -0.136045 0.000000 0
0.405710 -0.142475 0.000000 0
0.413988 -0.149045 0.000000 0
0.422186 -0.155753 0.000000 0
0.430304 -0.162598 0.000000 0
0.438340 -0.169581 0.000000 0
0.446293 -0.176700 0.000000 0
0.454160 -0.183954 0.000000 0
0.461940 -0.191342 0.000000 0
0.469631 -0.198863 0.000000 0
0.477232 -0.206517 0.000000 0
0.484742 -0.214302 0.000000 0
0.492158 -0.222218 0.000000 0
0.499479 -0.230263 0.000000 0
0.506703 -0.238436 0.000000 0
0.513829 -0.246737 0.000000 0
0.520856 -0.255165 0.000000 0
0.527781 -0.263717 0.000000 0
0.534604 -0.272394 0.000000 0
0.541322 -0.281194 0.000000 0
0.547935 -0.290116 0.000000 0
0.554440 -0.299160 0.000000 0
0.560836 -0.308322 0.000000 0
0.567122 -0.317604 0.000000 0
0.573297 -0.327003 0.000000 0
0.000000 0.000000 0.000000 0
0.010000 -0.000079 0.000052 0
0.019996 -0.000314 0.000209 0
0.029988 -0.000707 0.000471 0
0.039971 -0.001256 0.000838 0
0.049944 -0.001962 0.001309 0
0.059904 -0.002825 0.001885 0
0.069847 -0.003844 0.002565 0
0.079772 -0.005019 0.003350 0
0.089676 -0.006349 0.004240 0
0.099555 -0.007835 0.005234 0
0.109408 -0.009476 0.006332 0
0.119232 -0.011271 0.007535 0
0.129024 -0.013219 0.008842 0
0.138781 -0.015322 0.010253 0
0.148501 -0.017576 0.011769 0
0.158182 -0.019983 0.013388 0
0.167820 -0.022541 0.015112 0
0.177413 -0.025250 0.016939 0
0.186959 -0.028108 0.018871 0
0.196456 -0.031116 0.020906 0
0.205899 -0.034271 0.023044 0
0.215288 -0.037574 0.025286 0
0.224619 -0.041023 0.027631 0
0.233890 -0.044617 0.030080 0
0.243099 -0.048355 0.032632 0
0.252242 -0.052237 0.035286 0
0.261319 -0.056260 0.038043 0
0.270325 -0.060425 0.040903 0
0.279260 -0.064729 0.043866 0
0.288120 -0.069171 0.046930 0
0.296902 -0.073751 0.050097 0
0.305606 -0.078466 0.053366 0
0.314228 -0.083316 0.056737 0
0.322766 -0.088299 0.060209 0
0.331219 -0.093413 0.063782 0
0.339582 -0.098658 0.067457 0
0.347855 -0.104031 0.071233 0
0.356036 -0.109531 0.075110 0
0.364121 -0.115156 0.079087 0
0.372109 -0.120906 0.083165 0
0.379999 -0.126777 0.087342 0
0.387786 -0.132769 0.091620 0
0.395471 -0.138879 0.095998 0
0.403050 -0.145107 0.100474 0
0.410521 -0.151449 0.105050 0
0.417883 -0.157905 0.109725 0
0.425134 -0.164472 0.114499 0
0.432272 -0.171148 0.119371 0
0.439294 -0.177932 0.124341 0
0.446200 -0.184822 0.129410 0
0.452986 -0.191815 0.134575 0
0.459652 -0.198909 0.139838 0
0.466196 -0.206103 0.145198 0
0.472616 -0.213394 0.150655 0
0.478910 -0.220781 0.156208 0
0.485077 -0.228260 0.161858 0
0.491115 -0.235830 0.167603 0
0.497022 -0.243488 0.173444 0
0.502797 -0.251233 0.179380 0
0.508439 -0.259062 0.185410 0
0.513945 -0.266973 0.191535 0
0.519315 -0.274963 0.197755 0
0.524547 -0.283030 0.204068 0
0.529641 -0.291172 0.210475 0
0.534593 -0.299387 0.216974 0
0.539404 -0.307671 0.223567 0
0.000000 0.000000 0.000000 1
0.010000 -0.000026 -0.000052 1
0.019999 -0.000105 -0.000209 1
0.029995 -0.000236 -0.000471 1
0.039989 -0.000419 -0.000838 1
0.049979 -0.000654 -0.001309 1
0.059963 -0.000942 -0.001885 1
0.069941 -0.001282 -0.002565 1
0.079912 -0.001674 -0.003350 1
0.089875 -0.002118 -0.004240 1
0.099829 -0.002614 -0.005234 1
0.109772 -0.003162 -0.006332 1
0.119704 -0.003762 -0.007535 1
0.129624 -0.004413 -0.008842 1
0.139530 -0.005116 -0.010253 1
0.149422 -0.005871 -0.011769 1
0.159299 -0.006677 -0.013388 1
0.169159 -0.007534 -0.015112 1
0.179002 -0.008442 -0.016939 1
0.188827 -0.009400 -0.018871 1
0.198632 -0.010410 -0.020906 1
0.208416 -0.011470 -0.023044 1
0.218180 -0.012580 -0.025286 1
0.227920 -0.013741 -0.027631 1
0.237638 -0.014951 -0.030080 1
0.247331 -0.016211 -0.032632 1
0.256998 -0.017520 -0.035286 1
0.266639 -0.018879 -0.038043 1
0.276252 -0.020287 -0.040903 1
0.285837 -0.021743 -0.043866 1
0.295393 -0.023248 -0.046930 1
0.304918 -0.024801 -0.050097 1
0.314412 -0.026402 -0.053366 1
0.323874 -0.028050 -0.056737 1
0.333302 -0.029746 -0.060209 1
0.342696 -0.031489 -0.063782 1
0.352054 -0.033279 -0.067457 1
0.361376 -0.035115 -0.071233 1
0.370661 -0.036997 -0.075110 1
0.379908 -0.038925 -0.079087 1
0.389116 -0.040898 -0.083165 1
0.398283 -0.042916 -0.087342 1
0.407410 -0.044978 -0.091620 1
0.416494 -0.047085 -0.095998 1
0.425536 -0.049236 -0.100474 1
0.434533 -0.051430 -0.105050 1
0.443486 -0.053668 -0.109725 1
0.452393 -0.055948 -0.114499 1
0.461254 -0.058270 -0.119371 1
0.470067 -0.060634 -0.124341 1
0.478831 -0.063039 -0.129410 1
0.487546 -0.065486 -0.134575 1
0.496211 -0.067972 -0.139838 1
0.504824 -0.070499 -0.145198 1
0.513385 -0.073066 -0.150655 1
0.521894 -0.075671 -0.156208 1
0.530348 -0.078315 -0.161858 1
0.538747 -0.080997 -0.167603 1
0.547091 -0.083717 -0.173444 1
0.555379 -0.086473 -0.179380 1
0.563608 -0.089267 -0.185410 1
0.571780 -0.092096 -0.191535 1
0.579893 -0.094961 -0.197755 1
0.587945 -0.097861 -0.204068 1
0.595937 -0.100795 -0.210475 1
0.603867 -0.103763 -0.216974 1
0.611734 -0.106765 -0.223567 1
0.000000 0.000000 0.000000 1
0.010000 -0.000026 0.000000 1
0.020000 -0.000105 0.000000 1
0.029999 -0.000236 0.000000 1
0.039998 -0.000419 0.000000 1
0.049996 -0.000654 0.000000 1
0.059993 -0.000942 0.000000 1
0.069988 -0.001283 0.000000 1
0.079982 -0.001675 0.000000 1
0.089975 -0.002120 0.000000 1
0.099966 -0.002618 0.000000 1
0.109954 -0.003167 0.000000 1
0.119941 -0.003769 0.000000 1
0.129925 -0.004424 0.000000 1
0.139906 -0.005130 0.000000 1
0.149884 -0.005889 0.000000 1
0.159860 -0.006700 0.000000 1
0.169832 -0.007564 0.000000 1
0.179800 -0.008479 0.000000 1
0.189765 -0.009447 0.000000 1
0.199726 -0.010467 0.000000 1
0.209683 -0.011540 0.000000 1
0.219635 -0.012664 0.000000 1
0.229583 -0.013841 0.000000 1
0.239526 -0.015070 0.000000 1
0.249465 -0.016351 0.000000 1
0.259398 -0.017684 0.000000 1
0.269326 -0.019069 0.000000 1
0.279248 -0.020507 0.000000 1
0.289165 -0.021996 0.000000 1
0.299075 -0.023538 0.000000 1
0.308980 -0.025131 0.000000 1
0.318878 -0.026777 0.000000 1
0.328769 -0.028475 0.000000 1
0.338654 -0.030224 0.000000 1
0.348532 -0.032026 0.000000 1
0.358402 -0.033879 0.000000 1
0.368266 -0.035784 0.000000 1
0.378121 -0.037742 0.000000 1
0.387969 -0.039751 0.000000 1
0.397809 -0.041811 0.000000 1
0.407640 -0.043924 0.000000 1
0.417464 -0.046088 0.000000 1
0.427278 -0.048305 0.000000 1
0.437084 -0.050572 0.000000 1
0.446881 -0.052892 0.000000 1
0.456668 -0.055263 0.000000 1
0.466447 -0.057686 0.000000 1
0.476215 -0.060160 0.000000 1
0.485974 -0.062686 0.000000 1
0.495722 -0.065263 0.000000 1
0.505461 -0.067892 0.000000 1
0.515189 -0.070572 0.000000 1
0.524906 -0.073304 0.000000 1
0.534613 -0.076087 0.000000 1
0.544308 -0.078921 0.000000 1
0.553993 -0.081806 0.000000 1
0.563665 -0.084743 0.000000 1
0.573326 -0.087731 0.000000 1
0.582976 -0.090770 0.000000 1
0.592613 -0.093861 0.000000 1
0.602238 -0.097002 0.000000 1
0.611851 -0.100194 0.000000 1
0.621450 -0.103438 0.000000 1
0.631037 -0.106732 0.000000 1
0.640611 -0.110077 0.000000 1
0.650172 -0.113473 0.000000 1
0.000000 0.000000 0.000000 1
0.010000 -0.000026 0.000052 1
0.019999 -0.000105 0.000209 1
0.029995 -0.000236 0.000471 1
0.039989 -0.000419 0.000838 1
0.049979 -0.000654 0.001309 1
0.059963 -0.000942 0.001885 1
0.069941 -0.001282 0.002565 1
0.079912 -0.001674 0.003350 1
0.089875 -0.002118 0.004240 1
0.099829 -0.002614 0.005234 1
0.109772 -0.003162 0.006332 1
0.119704 -0.003762 0.007535 1
0.129624 -0.004413 0.008842 1
0.139530 -0.005116 0.010253 1
0.149422 -0.005871 0.011769 1
0.159299 -0.006677 0.013388 1
0.169159 -0.007534 0.015112 1
0.179002 -0.008442 0.016939 1
0.188827 -0.009400 0.018871 1
0.198632 -0.010410 0.020906 1
0.208416 -0.011470 0.023044 1
0.218180 -0.012580 0.025286 1
0.227920 -0.013741 0.027631 1
0.237638 -0.014951 0.030080 1
0.247331 -0.016211 0.032632 1
0.256998 -0.017520 0.035286 1
0.266639 -0.018879 0.038043 1
0.276252 -0.020287 0.040903 1
0.285837 -0.021743 0.043866 1
0.295393 -0.023248 0.046930 1
0.304918 -0.024801 0.050097 1
0.314412 -0.026402 0.053366 1
0.323874 -0.028050 0.056737 1
0.333302 -0.029746 0.060209 1
0.342696 -0.031489 0.063782 1
0.352054 -0.033279 0.067457 1
0.361376 -0.035115 0.071233 1
0.370661 -0.036997 0.075110 1
0.379908 -0.038925 0.079087 1
0.389116 -0.040898 0.083165 1
0.398283 -0.042916 0.087342 1
0.407410 -0.044978 0.091620 1
0.416494 -0.047085 0.095998 1
0.425536 -0.049236 0.100474 1
0.434533 -0.051430 0.105050 1
0.443486 -0.053668 0.109725 1
0.452393 -0.055948 0.114499 1
0.461254 -0.058270 0.119371 1
0.470067 -0.060634 0.124341 1
0.478831 -0.063039 0.129410 1
0.487546 -0.065486 0.134575 1
0.496211 -0.067972 0.139838 1
0.504824 -0.070499 0.145198 1
0.513385 -0.073066 0.150655 1
0.521894 -0.075671 0.156208 1
0.530348 -0.078315 0.161858 1
0.538747 -0.080997 0.167603 1
0.547091 -0.083717 0.173444 1
0.555379 -0.086473 0.179380 1
0.563608 -0.089267 0.185410 1
0.571780 -0.092096 0.191535 1
0.579893 -0.094961 0.197755 1
0.587945 -0.097861 0.204068 1
0.595937 -0.100795 0.210475 1
0.603867 -0.103763 0.216974 1
0.611734 -0.106765 0.223567 1
0.000000 0.000000 0.000000 2
0.010000 0.000026 -0.000052 2
0.019999 0.000105 -0.000209 2
0.029995 0.000236 -0.000471 2
0.039989 0.000419 -0.000838 2
0.049979 0.000654 -0.001309 2
0.059963 0.000942 -0.001885 2
0.069941 0.001282 -0.002565 2
0.079912 0.001674 -0.003350 2
0.089875 0.002118 -0.004240 2
0.099829 0.002614 -0.005234 2
0.109772 0.003162 -0.006332 2
0.119704 0.003762 -0.007535 2
0.129624 0.004413 -0.008842 2
0.139530 0.005116 -0.010253 2
0.149422 0.005871 -0.011769 2
0.159299 0.006677 -0.013388 2
0.169159 0.007534 -0.015112 2
0.179002 0.008442 -0.016939 2
0.188827 0.009400 -0.018871 2
0.198632 0.010410 -0.020906 2
0.208416 0.011470 -0.023044 2
0.218180 0.012580 -0.025286 2
0.227920 0.013741 -0.027631 2
0.237638 0.014951 -0.030080 2
0.247331 0.016211 -0.032632 2
0.256998 0.017520 -0.035286 2
0.266639 0.018879 -0.038043 2
0.276252 0.020287 -0.040903 2
0.285837 0.021743 -0.043866 2
0.295393 0.023248 -0.046930 2
0.304918 0.024801 -0.050097 2
0.314412 0.026402 -0.053366 2
0.323874 0.028050 -0.056737 2
0.333302 0.029746 -0.060209 2
0.342696 0.031489 -0.063782 2
0.352054 0.033279 -0.067457 2
0.361376 0.035115 -0.071233 2
0.370661 0.036997 -0.075110 2
0.379908 0.038925 -0.079087 2
0.389116 0.040898 -0.083165 2
0.398283 0.042916 -0.087342 2
0.407410 0.044978 -0.091620 2
0.416494 0.047085 -0.095998 2
0.425536 0.049236 -0.100474 2
0.434533 0.051430 -0.105050 2
0.443486 0.053668 -0.109725 2
0.452393 0.055948 -0.114499 2
0.461254 0.058270 -0.119371 2
0.470067 0.060634 -0.124341 2
0.478831 0.063039 -0.129410 2
0.487546 0.065486 -0.134575 2
0.496211 0.067972 -0.139838 2
0.504824 0.070499 -0.145198 2
0.513385 0.073066 -0.150655 2
0.521894 0.075671 -0.156208 2
0.530348 0.078315 -0.161858 2
0.538747 0.080997 -0.167603 2
0.547091 0.083717 -0.173444 2
0.555379 0.086473 -0.179380 2
0.563608 0.089267 -0.185410 2
0.571780 0.092096 -0.191535 2
0.579893 0.094961 -0.197755 2
0.587945 0.097861 -0.204068 2
0.595937 0.100795 -0.210475 2
0.603867 0.103763 -0.216974 2
0.611734 0.106765 -0.223567 2
0.000000 0.000000 0.000000 2
0.010000 0.000026 0.000000 2
0.020000 0.000105 0.000000 2
0.029999 0.000236 0.000000 2
0.039998 0.000419 0.000000 2
0.049996 0.000654 0.000000 2
0.059993 0.000942 0.000000 2
0.069988 0.001283 0.000000 2
0.079982 0.001675 0.000000 2
0.089975 0.002120 0.000000 2
0.099966 0.002618 0.000000 2
0.109954 0.003167 0.000000 2
0.119941 0.003769 0.000000 2
0.129925 0.004424 0.000000 2
0.139906 0.005130 0.000000 2
0.149884 0.005889 0.000000 2
0.159860 0.006700 0.000000 2
0.169832 0.007564 0.000000 2
0.179800 0.008479 0.000000 2
0.189765 0.009447 0.000000 2
0.199726 0.010467 0.000000 2
0.209683 0.011540 0.000000 2
0.219635 0.012664 0.000000 2
0.229583 0.013841 0.000000 2
0.239526 0.015070 0.000000 2
0.249465 0.016351 0.000000 2
0.259398 0.017684 0.000000 2
0.269326 0.019069 0.000000 2
0.279248 0.020507 0.000000 2
0.289165 0.021996 0.000000 2
0.299075 0.023538 0.000000 2
0.308980 0.025131 0.000000 2
0.318878 0.026777 0.000000 2
0.328769 0.028475 0.000000 2
0.338654 0.030224 0.000000 2
0.348532 0.032026 0.000000 2
0.358402 0.033879 0.000000 2
0.368266 0.035784 0.000000 2
0.378121 0.037742 0.000000 2
0.387969 0.039751 0.000000 2
0.397809 0.041811 0.000000 2
0.407640 0.043924 0.000000 2
0.417464 0.046088 0.000000 2
0.427278 0.048305 0.000000 2
0.437084 0.050572 0.000000 2
0.446881 0.052892 0.000000 2
0.456668 0.055263 0.000000 2
0.466447 0.057686 0.000000 2
0.476215 0.060160 0.000000 2
0.485974 0.062686 0.000000 2
0.495722 0.065263 0.000000 2
0.505461 0.067892 0.000000 2
0.515189 0.070572 0.000000 2
0.524906 0.073304 0.000000 2
0.534613 0.076087 0.000000 2
0.544308 0.078921 0.000000 2
0.553993 0.081806 0.000000 2
0.563665 0.084743 0.000000 2
0.573326 0.087731 0.000000 2
0.582976 0.090770 0.000000 2
0.592613 0.093861 0.000000 2
0.602238 0.097002 0.000000 2
0.611851 0.100194 0.000000 2
0.621450 0.103438 0.000000 2
0.631037 0.106732 0.000000 2
0.640611 0.110077 0.000000 2
0.650172 0.113473 0.000000 2
0.000000 0.000000 0.000000 2
0.010000 0.000026 0.000052 2
0.019999 0.000105 0.000209 2
0.029995 0.000236 0.000471 2
0.039989 0.000419 0.000838 2
0.049979 0.000654 0.001309 2
0.059963 0.000942 0.001885 2
0.069941 0.001282 0.002565 2
0.079912 0.001674 0.003350 2
0.089875 0.002118 0.004240 2
0.099829 0.002614 0.005234 2
0.109772 0.003162 0.006332 2
0.119704 0.003762 0.007535 2
0.129624 0.004413 0.008842 2
0.139530 0.005116 0.010253 2
0.149422 0.005871 0.011769 2
0.159299 0.006677 0.013388 2
0.169159 0.007534 0.015112 2
0.179002 0.008442 0.016939 2
0.188827 0.009400 0.018871 2
0.198632 0.010410 0.020906 2
0.208416 0.011470 0.023044 2
0.218180 0.012580 0.025286 2
0.227920 0.013741 0.027631 2
0.237638 0.014951 0.030080 2
0.247331 0.016211 0.032632 2
0.256998 0.017520 0.035286 2
0.266639 0.018879 0.038043 2
0.276252 0.020287 0.040903 2
0.285837 0.021743 0.043866 2
0.295393 0.023248 0.046930 2
0.304918 0.024801 0.050097 2
0.314412 0.026402 0.053366 2
0.323874 0.028050 0.056737 2
0.333302 0.029746 0.060209 2
0.342696 0.031489 0.063782 2
0.352054 0.033279 0.067457 2
0.361376 0.035115 0.071233 2
0.370661 0.036997 0.075110 2
0.379908 0.038925 0.079087 2
0.389116 0.040898 0.083165 2
0.398283 0.042916 0.087342 2
0.407410 0.044978 0.091620 2
0.416494 0.047085 0.095998 2
0.425536 0.049236 0.100474 2
0.434533 0.051430 0.105050 2
0.443486 0.053668 0.109725 2
0.452393 0.055948 0.114499 2
0.461254 0.058270 0.119371 2
0.470067 0.060634 0.124341 2
0.478831 0.063039 0.129410 2
0.487546 0.065486 0.134575 2
0.496211 0.067972 0.139838 2
0.504824 0.070499 0.145198 2
0.513385 0.073066 0.150655 2
0.521894 0.075671 0.156208 2
0.530348 0.078315 0.161858 2
0.538747 0.080997 0.167603 2
0.547091 0.083717 0.173444 2
0.555379 0.086473 0.179380 2
0.563608 0.089267 0.185410 2
0.571780 0.092096 0.191535 2
0.579893 0.094961 0.197755 2
0.587945 0.097861 0.204068 2
0.595937 0.100795 0.210475 2
0.603867 0.103763 0.216974 2
0.611734 0.106765 0.223567 2
0.000000 0.000000 0.000000 3
0.010000 0.000079 -0.000052 3
0.019996 0.000314 -0.000209 3
0.029988 0.000707 -0.000471 3
0.039971 0.001256 -0.000838 3
0.049944 0.001962 -0.001309 3
0.059904 0.002825 -0.001885 3
0.069847 0.003844 -0.002565 3
0.079772 0.005019 -0.003350 3
0.089676 0.006349 -0.004240 3
0.099555 0.007835 -0.005234 3
0.109408 0.009476 -0.006332 3
0.119232 0.011271 -0.007535 3
0.129024 0.013219 -0.008842 3
0.138781 0.015322 -0.010253 3
0.148501 0.017576 -0.011769 3
0.158182 0.019983 -0.013388 3
0.167820 0.022541 -0.015112 3
0.177413 0.025250 -0.016939 3
0.186959 0.028108 -0.018871 3
0.196456 0.031116 -0.020906 3
0.205899 0.034271 -0.023044 3
0.215288 0.037574 -0.025286 3
0.224619 0.041023 -0.027631 3
0.233890 0.044617 -0.030080 3
0.243099 0.048355 -0.032632 3
0.252242 0.052237 -0.035286 3
0.261319 0.056260 -0.038043 3
0.270325 0.060425 -0.040903 3
0.279260 0.064729 -0.043866 3
0.288120 0.069171 -0.046930 3
0.296902 0.073751 -0.050097 3
0.305606 0.078466 -0.053366 3
0.314228 0.083316 -0.056737 3
0.322766 0.088299 -0.060209 3
0.331219 0.093413 -0.063782 3
0.339582 0.098658 -0.067457 3
0.347855 0.104031 -0.071233 3
0.356036 0.109531 -0.075110 3
0.364121 0.115156 -0.079087 3
0.372109 0.120906 -0.083165 3
0.379999 0.126777 -0.087342 3
0.387786 0.132769 -0.091620 3
0.395471 0.138879 -0.095998 3
0.403050 0.145107 -0.100474 3
0.410521 0.151449 -0.105050 3
0.417883 0.157905 -0.109725 3
0.425134 0.164472 -0.114499 3
0.432272 0.171148 -0.119371 3
0.439294 0.177932 -0.124341 3
0.446200 0.184822 -0.129410 3
0.452986 0.191815 -0.134575 3
0.459652 0.198909 -0.139838 3
0.466196 0.206103 -0.145198 3
0.472616 0.213394 -0.150655 3
0.478910 0.220781 -0.156208 3
0.485077 0.228260 -0.161858 3
0.491115 0.235830 -0.167603 3
0.497022 0.243488 -0.173444 3
0.502797 0.251233 -0.179380 3
0.508439 0.259062 -0.185410 3
0.513945 0.266973 -0.191535 3
0.519315 0.274963 -0.197755 3
0.524547 0.283030 -0.204068 3
0.529641 0.291172 -0.210475 3
0.534593 0.299387 -0.216974 3
0.539404 0.307671 -0.223567 3
0.000000 0.000000 0.000000 3
0.010000 0.000079 0.000000 3
0.019998 0.000314 0.000000 3
0.029992 0.000707 0.000000 3
0.039980 0.001256 0.000000 3
0.049961 0.001963 0.000000 3
0.059933 0.002826 0.000000 3
0.069894 0.003847 0.000000 3
0.079842 0.005023 0.000000 3
0.089775 0.006356 0.000000 3
0.099692 0.007846 0.000000 3
0.109590 0.009492 0.000000 3
0.119467 0.011293 0.000000 3
0.129323 0.013250 0.000000 3
0.139155 0.015363 0.000000 3
0.148960 0.017631 0.000000 3
0.158738 0.020053 0.000000 3
0.168487 0.022631 0.000000 3
0.178204 0.025362 0.000000 3
0.187888 0.028248 0.000000 3
0.197538 0.031287 0.000000 3
0.207150 0.034479 0.000000 3
0.216724 0.037824 0.000000 3
0.226258 0.041322 0.000000 3
0.235749 0.044972 0.000000 3
0.245196 0.048773 0.000000 3
0.254598 0.052725 0.000000 3
0.263952 0.056827 0.000000 3
0.273257 0.061080 0.000000 3
0.282510 0.065482 0.000000 3
0.291711 0.070034 0.000000 3
0.300857 0.074733 0.000000 3
0.309947 0.079581 0.000000 3
0.318978 0.084575 0.000000 3
0.327950 0.089717 0.000000 3
0.336859 0.095004 0.000000 3
0.345706 0.100437 0.000000 3
0.354487 0.106014 0.000000 3
0.363201 0.111735 0.000000 3
0.371847 0.117600 0.000000 3
0.380423 0.123607 0.000000 3
0.388926 0.129756 0.000000 3
0.397356 0.136045 0.000000 3
0.405710 0.142475 0.000000 3
0.413988 0.149045 0.000000 3
0.422186 0.155753 0.000000 3
0.430304 0.162598 0.000000 3
0.438340 0.169581 0.000000 3
0.446293 0.176700 0.000000 3
0.454160 0.183954 0.000000 3
0.461940 0.191342 0.000000 3
0.469631 0.198863 0.000000 3
0.477232 0.206517 0.000000 3
0.484742 0.214302 0.000000 3
0.492158 0.222218 0.000000 3
0.499479 0.230263 0.000000 3
0.506703 0.238436 0.000000 3
0.513829 0.246737 0.000000 3
0.520856 0.255165 0.000000 3
0.527781 0.263717 0.000000 3
0.534604 0.272394 0.000000 3
0.541322 0.281194 0.000000 3
0.547935 0.290116 0.000000 3
0.554440 0.299160 0.000000 3
0.560836 0.308322 0.000000 3
0.567122 0.317604 0.000000 3
0.573297 0.327003 0.000000 3
0.000000 0.000000 0.000000 3
0.010000 0.000079 0.000052 3
0.019996 0.000314 0.000209 3
0.029988 0.000707 0.000471 3
0.039971 0.001256 0.000838 3
0.049944 0.001962 0.001309 3
0.059904 0.002825 0.001885 3
0.069847 0.003844 0.002565 3
0.079772 0.005019 0.003350 3
0.089676 0.006349 0.004240 3
0.099555 0.007835 0.005234 3
0.109408 0.009476 0.006332 3
0.119232 0.011271 0.007535 3
0.129024 0.013219 0.008842 3
0.138781 0.015322 0.010253 3
0.148501 0.017576 0.011769 3
0.158182 0.019983 0.013388 3
0.167820 0.022541 0.015112 3
0.177413 0.025250 0.016939 3
0.186959 0.028108 0.018871 3
0.196456 0.031116 0.020906 3
0.205899 0.034271 0.023044 3
0.215288 0.037574 0.025286 3
0.224619 0.041023 0.027631 3
0.233890 0.044617 0.030080 3
0.243099 0.048355 0.032632 3
0.252242 0.052237 0.035286 3
0.261319 0.056260 0.038043 3
0.270325 0.060425 0.040903 3
0.279260 0.064729 0.043866 3
0.288120 0.069171 0.046930 3
0.296902 0.073751 0.050097 3
0.305606 0.078466 0.053366 3
0.314228 0.083316 0.056737 3
0.322766 0.088299 0.060209 3
0.331219 0.093413 0.063782 3
0.339582 0.098658 0.067457 3
0.347855 0.104031 0.071233 3
0.356036 0.109531 0.075110 3
0.364121 0.115156 0.079087 3
0.372109 0.120906 0.083165 3
0.379999 0.126777 0.087342 3
0.387786 0.132769 0.091620 3
0.395471 0.138879 0.095998 3
0.403050 0.145107 0.100474 3
0.410521 0.151449 0.105050 3
0.417883 0.157905 0.109725 3
0.425134 0.164472 0.114499 3
0.432272 0.171148 0.119371 3
0.439294 0.177932 0.124341 3
0.446200 0.184822 0.129410 3
0.452986 0.191815 0.134575 3
0.459652 0.198909 0.139838 3
0.466196 0.206103 0.145198 3
0.472616 0.213394 0.150655 3
0.478910 0.220781 0.156208 3
0.485077 0.228260 0.161858 3
0.491115 0.235830 0.167603 3
0.497022 0.243488 0.173444 3
0.502797 0.251233 0.179380 3
0.508439 0.259062 0.185410 3
0.513945 0.266973 0.191535 3
0.519315 0.274963 0.197755 3
0.524547 0.283030 0.204068 3
0.529641 0.291172 0.210475 3
0.534593 0.299387 0.216974 3
0.539404 0.307671 0.223567 3
