# This PCD file was generated using the MATLAB® pcwrite function
# from Computer Vision Toolbox®.
# .PCD v.7 - Point Cloud Data file format
VERSION .7
FIELDS x y z rgb
SIZE 8 8 8 4
TYPE F F F F
COUNT 1 1 1 1
WIDTH 681
HEIGHT 1
VIEWPOINT 0 0 0 1 0 0 0
POINTS 681
DATA ascii
6.608503664174606 6.597174271798364 0.041517733526034 4.136114586e-40
3.247196102398300 2.792251207479223 1.105914067050212 8.586845901e-39
1.391873989446681 3.360303179234544 0.127880791475117 1.056450123e-39
6.004121464814905 3.855841447600477 0.160214715436314 1.331952407e-39
4.026084464274928 4.949328267104415 0.157748354512285 1.240118312e-39
2.689210432835747 7.667530866872745 0.124924005086665 1.056450123e-39
10.000000000000000 7.622487940192573 0.164300905851994 1.331952407e-39
3.027394301264543 4.416382788261497 0.138967218049287 1.148284218e-39
0.706395313076397 0.093183040427832 0.121930997784450 9.646160278e-40
4.288201994638965 2.570021403687019 0.016066425455251 1.381091740e-40
8.937654118475825 8.113928719761297 0.087047015019539 6.891137432e-40
0.008445529580889 5.749453074588904 0.061374310603051 5.054455535e-40
1.151572410131374 9.956270222669016 0.265635152966538 2.066625166e-39
9.430094766241357 9.122416400655819 0.066464921709775 5.972796483e-40
5.400992571762270 2.673560307759201 0.000000000000000 4.627507919e-41
9.095841804872739 8.023958927204975 0.047126538265535 4.136114586e-40
5.852567904509025 0.770991211866306 0.090632853811051 7.809478381e-40
8.575971824711662 2.375693631350903 0.000000000000000 4.627507919e-41
5.317315215680786 5.045565559012247 0.144528345864774 1.148284218e-39
3.887255554388914 9.173455480461216 1.095116743491749 8.495011806e-39
4.225353340678465 8.559848719229645 0.153424563200007 1.240118312e-39
1.170369666075599 9.189159003498716 0.038199801343399 3.217773638e-40
0.429834432919527 8.656753565042342 0.104320810976328 8.727819329e-40
0.650623584526841 8.930579137594115 0.058199152175923 5.054455535e-40
9.511069742898012 9.969290387297896 0.012116211311821 1.381091740e-40
2.163170393762037 6.098837966126382 0.072000330507483 5.972796483e-40
8.426152532775552 6.530292131979246 0.065864968080222 5.972796483e-40
0.636824720905006 6.133345773039762 0.151745426001021 1.240118312e-39
5.051534904643086 7.533671249415574 0.115358424461256 9.646160278e-40
3.317989931038691 5.684323253702732 1.150154116007746 8.954182281e-39
0.605136580589911 4.825018984095778 0.000000000000000 4.627507919e-41
2.666936753149598 5.457629235613349 0.237681989626448 1.882956976e-39
4.943440657125910 8.468357973541723 0.086189414199094 6.891137432e-40
1.415127901174770 6.290841344405993 0.025530062629546 2.299432689e-40
8.801321483432165 1.127530152565158 0.220424591792683 1.791122882e-39
5.529009012747697 2.280466904930746 0.068043455928804 5.972796483e-40
5.949630978701129 4.630513727574161 0.171629693750889 1.331952407e-39
1.556601716259691 5.760827609882960 0.000000000000000 4.627507919e-41
9.138921096389451 6.666159862096904 0.244217267718271 1.974791071e-39
7.833017700197366 3.986855581890201 0.103105893983389 8.727819329e-40
4.497927971723937 2.929950876058133 0.030982476928362 3.217773638e-40
6.409270020199520 4.657104139827594 0.146686551553307 1.148284218e-39
4.268929615307393 5.870719177713348 0.105545444963888 8.727819329e-40
2.996431000504199 3.943676532276386 0.067186432662995 5.972796483e-40
8.675488789903946 1.495211080563006 0.063097237934900 5.054455535e-40
0.584650472125236 0.382908184233076 0.107219996915244 8.727819329e-40
7.955266911035292 8.449086878030407 0.032379970730771 3.217773638e-40
4.561774818525226 9.215400370717239 0.136670801176336 1.148284218e-39
2.318886648850779 2.699099276544036 0.024974728272020 2.299432689e-40
0.492056376833584 5.358180133642056 0.154251529593354 1.240118312e-39
1.632193932810297 8.660281846105486 0.136440224373954 1.148284218e-39
4.035944445026612 0.872629049291034 0.011800165684409 1.381091740e-40
1.747188105449464 7.909376843222338 0.193536346395614 1.515620597e-39
2.786719016991314 5.576612685892758 0.136307039055886 1.148284218e-39
2.139414909210751 8.185993753820341 0.104791789527837 8.727819329e-40
5.618174946787548 2.677672249503099 0.092952097544109 7.809478381e-40
1.577343092954682 1.108414557217687 0.090230726259061 7.809478381e-40
9.826511680300248 1.956981432371409 0.103470725140509 8.727819329e-40
6.533730331383934 4.013125308917068 0.134645523846710 1.056450123e-39
4.493962816431035 0.292523409407284 0.033358632810969 3.217773638e-40
6.823481415517322 9.168044832485723 0.105759894782085 8.727819329e-40
4.787413786515917 2.599239923940454 0.034597144131506 3.217773638e-40
7.479072618587415 5.389575516656031 0.190456028833181 1.515620597e-39
3.354287017537107 4.631249152048332 1.059072478744622 8.219509522e-39
9.489799322209784 1.084892689585719 0.000000000000000 4.627507919e-41
1.150817344118446 6.672509410004491 0.015944088255738 1.381091740e-40
8.089524492212954 8.476469359757781 0.225066412650595 1.791122882e-39
5.549996606192797 9.717483546299611 0.203884226715553 1.607454692e-39
7.986509284168938 7.050640946203131 0.084396383598068 6.891137432e-40
8.975118610168980 1.159079692405189 0.163731091854981 1.331952407e-39
1.331206697912528 9.425992381444781 0.087393638358563 6.891137432e-40
0.660329007332675 6.173251695883336 0.129006513712271 1.056450123e-39
0.835897616517745 0.702413421089214 0.111121791587407 8.727819329e-40
9.645374279003965 1.325077284027485 0.050305702650424 4.136114586e-40
7.210085881387677 6.113355569880249 0.209204414675425 1.699288787e-39
1.726307239989790 6.813325104774928 0.107866927902035 8.727819329e-40
6.316272343346851 4.245036313359268 0.107679336339931 8.727819329e-40
7.149163324111917 6.112881848071385 0.081632869666180 6.891137432e-40
3.977219934628188 0.576827805456449 1.017648419767087 7.944007237e-39
2.763583506027504 2.061169070709981 0.000000000000000 4.627507919e-41
3.650661177802095 8.623184062329825 1.071585843922346 8.403177711e-39
7.971953533574535 5.978980888122712 0.041605499241088 4.136114586e-40
4.366899659832371 3.871557316293138 0.126865409494862 1.056450123e-39
9.198747437159737 8.307186467789004 0.057945994451894 5.054455535e-40
10.000000000000000 4.360717968956704 0.197395419100287 1.607454692e-39
3.434972006002025 1.904965545748762 1.154884265467881 9.046016375e-39
6.339990678127664 4.501465408585824 0.247064849373004 1.974791071e-39
1.155442534353728 0.302980388785626 0.027127590997180 2.299432689e-40
5.314118577818855 1.323941664757221 0.062229865318113 5.054455535e-40
6.941936611499263 2.376871615018513 0.121452304913740 9.646160278e-40
2.480863818453018 8.092693683724130 0.210265731416835 1.699288787e-39
9.320174810477983 4.267436703995449 0.000000000000000 4.627507919e-41
7.405022474855978 10.000000000000000 0.107401574290095 8.727819329e-40
5.692575384937592 7.682720082039157 0.013584719629443 1.381091740e-40
2.261864653595847 7.137502381211497 0.114620734204680 9.646160278e-40
9.313688430337328 3.538511217799865 0.020432448140407 2.299432689e-40
1.055332052671172 5.221939143131888 0.189511355350619 1.515620597e-39
1.376862884334167 4.782695779004525 0.050177759506746 4.136114586e-40
7.777047207533637 3.597961739874530 0.079949541125398 6.891137432e-40
7.102390821875622 5.883587782017726 0.005138821557471 4.627507919e-41
6.475877101700314 6.136306787399801 0.000000000000000 4.627507919e-41
9.399474400302303 1.174572911681091 0.167877958646846 1.331952407e-39
1.981380653920247 4.866253618790005 0.000000000000000 4.627507919e-41
7.833746266637567 8.403309164640499 0.138362449299009 1.148284218e-39
3.814192061354654 7.309552774301386 1.080897127112769 8.403177711e-39
2.236747937529804 1.123412840352159 0.000000000000000 4.627507919e-41
1.794633604153977 0.367172941342519 0.172767841764356 1.423786502e-39
9.521148065785759 4.872260123555583 0.048189097977927 4.136114586e-40
7.451380613349328 5.675823805394982 0.064736342557326 5.054455535e-40
0.069960241748025 9.300900636463721 0.077987877462705 6.891137432e-40
7.591239565164294 5.203348462722595 0.139092122780028 1.148284218e-39
2.181162299902256 4.030611467900653 0.124663015939332 1.056450123e-39
0.207853526500041 6.130351762273470 0.000000000000000 4.627507919e-41
9.069354890813734 5.458259291794596 0.019939952234514 2.299432689e-40
0.741686013155849 4.106965915577663 0.096664981258690 7.809478381e-40
7.891963438649389 6.267295218624457 0.047046038832388 4.136114586e-40
9.176537097088403 0.610878516176427 0.208355036236059 1.699288787e-39
2.114500728644019 2.861824022943769 0.126018321734241 1.056450123e-39
5.708065965688998 7.953711782120277 0.063702731534123 5.054455535e-40
8.921939348341947 4.897186750866076 0.191573050616947 1.515620597e-39
2.091288535564279 2.081102507927201 0.188339441081716 1.515620597e-39
2.107423899997334 7.785048473129621 0.213048539016618 1.699288787e-39
8.165632184100877 3.165181859148771 0.134442419936303 1.056450123e-39
5.161641325391510 1.695892466422060 0.021808887796328 2.299432689e-40
1.391208098138819 9.665617332123963 0.181489565764430 1.423786502e-39
1.524470319229866 8.979795790237642 0.181598960314628 1.423786502e-39
0.975591224348899 3.108587279612779 0.097122505730851 7.809478381e-40
6.619276764494344 1.734156445689341 0.068379653473732 5.972796483e-40
6.068150808648316 3.259556281822746 0.000000000000000 4.627507919e-41
0.986458740036167 0.341147745996494 0.000000000000000 4.627507919e-41
8.330920000893897 7.475777648456639 0.109898596089944 8.727819329e-40
1.246800009398632 2.194976523986249 0.068674668858856 5.972796483e-40
7.319154491030094 9.877388853132128 0.038908137705899 3.217773638e-40
2.416748469939619 6.830773381502919 0.180979593997055 1.423786502e-39
7.463545604973157 4.774497384356716 0.000000000000000 4.627507919e-41
1.050356616133230 6.225409770322464 0.238729900985821 1.882956976e-39
4.132168452337977 6.564076735987689 0.011221570195225 1.381091740e-40
0.196179722165327 8.499159670718301 0.058824632987379 5.054455535e-40
3.300757444089213 0.170670671300463 1.041801874110063 8.127675427e-39
4.588951561340178 4.865730071317580 0.242450410960432 1.882956976e-39
0.704688813833167 3.290990644927143 0.043501954942400 4.136114586e-40
8.834981080563436 7.153145143520082 0.081637434947682 6.891137432e-40
2.307322491837940 7.761008515891101 0.159074396208365 1.240118312e-39
7.867613210442096 0.695048900028553 0.072105280847849 5.972796483e-40
4.938866621947168 8.563069790737922 0.069714365940656 5.972796483e-40
9.548010279576561 4.149733985233373 0.050555725837757 4.136114586e-40
9.599860390669322 4.024574279350700 0.215757417301423 1.699288787e-39
8.886443524521193 4.704494233705057 0.121942359265706 9.646160278e-40
6.733844858409404 9.181213857365055 0.131781927266552 1.056450123e-39
2.676167822546108 5.725863014890351 0.094672169999363 7.809478381e-40
0.155192628567049 7.656978840318670 0.063510331074785 5.054455535e-40
0.240666885472157 5.280832087630401 0.126270966002374 1.056450123e-39
7.703200747812543 3.426682823331700 0.245734852774163 1.974791071e-39
9.466334628662130 8.898901533144361 0.088946979574795 7.809478381e-40
0.186126106124902 0.505891248628788 0.061147464257229 5.054455535e-40
3.390377676349943 9.084159793048631 1.108356516259857 8.678679996e-39
5.222277768232691 5.148047779028944 0.067861465654051 5.972796483e-40
9.997297938688046 3.147707473151357 0.130001405985304 1.056450123e-39
3.701896667278863 7.377980422519969 1.084386260453878 8.495011806e-39
7.971633920558967 6.269500870909662 0.080107693408286 6.891137432e-40
9.714255276647574 3.404716260903558 0.043279368892152 4.136114586e-40
4.292748759981317 1.055793267257129 0.029917586963886 3.217773638e-40
4.246689508370458 4.509160139917469 0.148619534140690 1.240118312e-39
4.237067276780755 2.236243592085965 0.133051634888527 1.056450123e-39
3.329513071675265 5.193802268549727 0.959986861313801 7.484836763e-39
1.752661878742954 1.170505229232923 0.000000000000000 4.627507919e-41
7.439206707129579 2.988406530980863 0.159434743563567 1.240118312e-39
9.044902182350228 2.469439503698411 0.017974803664289 2.299432689e-40
5.754727067512167 0.193212963530927 0.095852755909144 7.809478381e-40
1.278911306430915 6.290155711007575 0.000000000000000 4.627507919e-41
0.548018216469565 5.045538245598074 0.000000000000000 4.627507919e-41
5.216889038959883 6.100799909612394 0.054729357959854 5.054455535e-40
6.041769636061170 1.876832154647693 0.086694087870556 6.891137432e-40
2.571892514499389 3.799060088559168 0.149668963900661 1.240118312e-39
5.454034726271234 0.716227802926156 0.067172527504428 5.972796483e-40
1.585687263422311 1.568517254974947 0.152977931400273 1.240118312e-39
3.592360677093779 9.410102329589556 1.016135815154505 7.944007237e-39
3.260271875994600 0.708637762043339 0.995544382198417 7.760339047e-39
8.141577949434168 9.571630535943868 0.000000000000000 4.627507919e-41
8.801029934577132 4.992655389614999 0.141228629611200 1.148284218e-39
7.414183678538862 6.018554601796525 0.085779834690584 6.891137432e-40
6.464991867672793 5.397368699704726 0.141432948611977 1.148284218e-39
6.876971323014703 9.534391641533487 0.106321215171220 8.727819329e-40
9.985322445259266 0.785298661924799 0.125537829550215 1.056450123e-39
3.670487101625159 7.658878382061821 1.168087564534536 9.137850470e-39
9.784419952377664 2.258080263907888 0.045125150196518 4.136114586e-40
6.239353970459713 4.842526352812649 0.137210055254934 1.148284218e-39
4.089304150507477 3.413643134953479 1.216603290567728 9.505186850e-39
4.360817952700559 8.217928408113170 0.153218334651219 1.240118312e-39
8.361479900868886 8.991660119158420 0.050324565644065 4.136114586e-40
4.351347354750138 8.887631432779871 0.041059909657263 3.217773638e-40
6.751448190759188 2.463892607529718 0.213402302638363 1.699288787e-39
6.410447008938083 7.218002426452562 0.209949735621415 1.699288787e-39
7.156137800133899 6.087641529389569 0.067347995002522 5.972796483e-40
7.519072379311545 3.545482875884792 0.018812112991952 2.299432689e-40
1.148124313235223 2.148699303891778 0.119724112712362 9.646160278e-40
5.541125355680507 2.006138129216948 0.070921708391289 5.972796483e-40
7.874628293537500 6.971333642012994 0.066159069611832 5.972796483e-40
2.482772134063971 2.671972379295436 0.092802115830297 7.809478381e-40
1.077492306162220 6.857946847585024 0.123532379230867 9.646160278e-40
5.945277182835397 1.333793979703493 0.222196841535851 1.791122882e-39
5.381476057243844 5.327663023849606 0.173422798046648 1.423786502e-39
7.073573995735567 2.646827875223434 0.173250595635051 1.423786502e-39
4.268641285985246 0.956286855336695 0.112436551375957 8.727819329e-40
7.039579634572855 8.555916393548571 0.123491448558188 9.646160278e-40
4.078138835466281 0.719059964847120 0.109446157515469 8.727819329e-40
1.165274030040145 7.408778609225635 0.090728089783197 7.809478381e-40
9.144549319599472 8.046798276725969 0.168335538236526 1.331952407e-39
3.182124122769203 1.426250889579090 1.213632285677830 9.505186850e-39
3.050086692316419 7.511415433918140 0.232605838585879 1.882956976e-39
5.670805940777798 8.676415144979652 0.161784149837720 1.331952407e-39
3.083558848575233 5.101570052873753 1.130001222205395 8.770514091e-39
8.907971800815870 4.276619557974408 0.163172095105699 1.331952407e-39
8.537883254569953 2.665004458902201 0.000000000000000 4.627507919e-41
9.391996908571771 3.005906860018394 0.004847807649946 4.627507919e-41
2.313916215577771 4.035710881885502 0.082572671941518 6.891137432e-40
0.643530020909434 4.595622518203348 0.129239929487739 1.056450123e-39
6.435538221548469 2.824058428571927 0.076804042957593 5.972796483e-40
0.347585793387720 6.618041888098980 0.206836634486159 1.607454692e-39
4.026085624941526 9.614846441400053 0.143757968996020 1.148284218e-39
8.219980128466043 0.441369123654513 0.184756206694422 1.515620597e-39
6.960246185293085 4.955137746075343 0.162932594495776 1.331952407e-39
2.043343924488168 2.996708167457173 0.167259658956368 1.331952407e-39
3.538884709986910 2.121624741663842 1.032444024600702 8.035841332e-39
8.402315445350908 2.722014862249185 0.042330337918490 4.136114586e-40
0.556568132100702 9.892898943196831 0.106224760261539 8.727819329e-40
3.907726236243755 6.796511345006456 0.072024974909116 5.972796483e-40
2.729952336878353 0.000000000000000 0.000000000000000 4.627507919e-41
8.305201830064087 6.046446627063939 0.090430539667704 7.809478381e-40
8.034730477392436 1.991486115705559 0.116134710733273 9.646160278e-40
2.379669911615835 3.061523491439525 0.180347307769588 1.423786502e-39
3.820228673634246 5.237381515014945 1.193354539715430 9.321518660e-39
9.981390245635687 9.856667082084819 0.044943259860970 4.136114586e-40
8.421919101340348 4.103541791321626 0.139788404372081 1.148284218e-39
7.176158562093891 9.809969461613839 0.096597379974345 7.809478381e-40
0.537493041045516 0.501946187353400 0.184890322792895 1.515620597e-39
4.719161116206804 1.483273776894700 0.010706151504927 1.381091740e-40
8.954005971658281 6.267818814957116 0.162913839925463 1.331952407e-39
9.595142784945718 7.259604862401843 0.220538748445955 1.791122882e-39
5.628242615484717 3.826661566923279 0.053505693283188 5.054455535e-40
7.407130009505208 1.066559973604176 0.213038232289194 1.699288787e-39
7.582909364260532 5.327176262371307 0.175015161805601 1.423786502e-39
9.386456975682059 6.485745178626186 0.160859728621353 1.331952407e-39
4.961137154080056 7.337366202835101 0.073700282391082 5.972796483e-40
8.299054389911237 0.077073517721681 0.055458135154836 5.054455535e-40
9.396382647162385 6.358326335860830 0.000000000000000 4.627507919e-41
8.557654393707178 3.700933787417902 0.044699737286936 4.136114586e-40
8.369277349738828 4.497624310879921 0.104353263397665 8.727819329e-40
6.823613230917956 9.421818373925605 0.000000000000000 4.627507919e-41
7.443021038235016 1.913547070336335 0.058057054274772 5.054455535e-40
8.230218329300101 0.268661635074294 0.062407924468880 5.054455535e-40
7.177883160219102 3.021724556085513 0.079393069394640 6.891137432e-40
6.213563035411137 7.843861581125680 0.153821608293267 1.240118312e-39
6.655378747363836 5.388481676680325 0.093305844523172 7.809478381e-40
9.445590987310069 1.600318698359521 0.153110049383220 1.240118312e-39
5.630260102555706 6.116424425021349 0.164304831970548 1.331952407e-39
6.178482952722257 0.705265749129303 0.111861122655047 8.727819329e-40
0.163064743477155 0.988741778417617 0.063549131294155 5.054455535e-40
4.965532585447588 4.158362099420402 0.000000000000000 4.627507919e-41
0.547177434917421 5.027412839222166 0.069993642949626 5.972796483e-40
1.677206290233072 3.926640950410057 0.068630447059403 5.972796483e-40
5.788313011501329 1.360585959226086 0.000000000000000 4.627507919e-41
8.286886910055120 7.090497534530692 0.105451982275675 8.727819329e-40
4.003003512002758 6.065881543039467 0.077597544431155 6.891137432e-40
2.086264787091734 7.406900465391201 0.018611989932056 2.299432689e-40
3.944926911748747 6.869266625330476 1.218274538618009 9.505186850e-39
0.693535159597870 4.045818958591214 0.072035131839218 5.972796483e-40
8.169915260605192 3.118521748097569 0.110948206664082 8.727819329e-40
1.926152618255840 9.761299754690667 0.000000000000000 4.627507919e-41
5.576227999766942 5.259604335624977 0.142967767532777 1.148284218e-39
7.680806945143327 7.901209568792471 0.064267495948230 5.054455535e-40
2.898552101070692 8.837883239867663 0.092231537580268 7.809478381e-40
5.400915589075005 8.075899854729657 0.175412900251643 1.423786502e-39
6.554471602808989 8.007891888468226 0.074841393689925 5.972796483e-40
9.428361626773471 6.432731720195674 0.100554203075373 7.809478381e-40
8.802294149972452 6.787963680930361 0.142313688401255 1.148284218e-39
9.636976032907510 2.574394699727535 0.072783460107698 5.972796483e-40
0.177315335943716 0.962134461610772 0.189650214745400 1.515620597e-39
1.554315663239414 3.714578401652668 0.159862829383278 1.331952407e-39
4.793903367946051 3.859575983481444 0.183372910377915 1.423786502e-39
9.115591934487389 0.782362995508731 0.065483191496096 5.972796483e-40
0.765878947535774 5.483055267279181 0.164672313854140 1.331952407e-39
1.714504689941121 7.113238679308354 0.239652110792967 1.882956976e-39
6.302098071199281 6.645550767712348 0.000000000000000 4.627507919e-41
7.248471955215866 0.523897997745938 0.046898882190672 4.136114586e-40
2.200497121173924 5.498323975205258 0.097172140083217 7.809478381e-40
1.716557131981385 7.543262605771111 0.273171168393297 2.158459261e-39
8.904899671132835 5.418210049864650 0.051049721482994 4.136114586e-40
7.932221331944307 0.219015020640011 0.152199730702656 1.240118312e-39
9.483708189187974 2.051091841669115 0.057533605454209 5.054455535e-40
1.696955712537590 9.304828851199009 0.030766592734125 3.217773638e-40
1.209064169400736 8.591776402971819 0.170947930269117 1.331952407e-39
1.147797102421837 7.619687786318876 0.000000000000000 4.627507919e-41
6.148033132342666 5.693592603857789 0.082956455268953 6.891137432e-40
4.606187136816754 7.805709038419926 0.239307470400908 1.882956976e-39
0.095377109633370 7.767654573005076 0.233291891828933 1.882956976e-39
7.074573956408850 4.044442959204666 0.145991813261642 1.148284218e-39
6.022965421530437 8.419404370653606 0.176920800548534 1.423786502e-39
5.626762782748317 3.301257366329993 0.093156264641378 7.809478381e-40
7.694768055067840 0.245483491652284 0.139563724176186 1.148284218e-39
8.950545326127255 6.389864286176640 0.065339851579439 5.972796483e-40
1.120604394254987 6.721990108248045 0.084596322425607 6.891137432e-40
3.922939310905537 3.642633139148381 1.070883076789645 8.311343617e-39
1.396010780137977 8.524951716899604 0.162945290730846 1.331952407e-39
5.929186250565932 5.160046372245585 0.165420226526563 1.331952407e-39
1.025212887807368 8.928154578650874 0.024807197242420 2.299432689e-40
4.956913255855198 9.094061777048664 0.147769625416931 1.148284218e-39
8.205643240297494 7.984326883480475 0.090651720252159 7.809478381e-40
6.930774793435778 1.703228000816004 0.077058620640459 6.891137432e-40
6.909510273551112 7.146063880366425 0.000000000000000 4.627507919e-41
7.073379726359571 6.188596957687627 0.125492532123317 1.056450123e-39
8.412644911776512 3.769675986552897 0.202724053128599 1.607454692e-39
6.666993658262875 9.216035239478382 0.050927065113771 4.136114586e-40
6.015091194536464 3.358227432091189 0.015137136426306 1.381091740e-40
4.376628365175412 8.095928279872314 0.114990874908946 9.646160278e-40
0.043137968814878 6.881700758946314 0.126159333464845 1.056450123e-39
9.695912502834867 1.209531285951404 0.035809111690956 3.217773638e-40
0.923876156016881 7.046914254103378 0.000000000000000 4.627507919e-41
5.486391296952036 5.967127265566826 0.010530523366259 1.381091740e-40
8.886416141345137 7.466174900725851 0.123927795542647 9.646160278e-40
3.783802063012280 6.474669442491494 1.277357805716000 9.964357324e-39
3.511007863746978 8.488080460882106 1.198653569960065 9.321518660e-39
4.622450026780360 3.037188807242577 0.000000000000000 4.627507919e-41
7.209284458367912 6.081442947888044 0.172676245249211 1.423786502e-39
5.638245768672486 5.776520097348818 0.151622971226990 1.240118312e-39
3.964765701713861 5.991592908622496 1.052897810751440 8.219509522e-39
6.657563891717504 5.624473161143858 0.104380601266671 8.727819329e-40
0.516806038736970 4.050904962253314 0.176777387300596 1.423786502e-39
5.248816988742846 4.398893877340626 0.090282776412197 7.809478381e-40
6.588203453427003 4.828644843438584 0.248906273177825 1.974791071e-39
4.005901591315002 0.198186725768600 0.000000000000000 4.627507919e-41
0.762224472470331 2.767147602635022 0.171318676458316 1.331952407e-39
8.240290122898184 9.810558501034315 0.082622342460370 6.891137432e-40
6.503636707302627 9.325241040194161 0.127810510446605 1.056450123e-39
4.516160256881486 4.840717068701491 0.000000000000000 4.627507919e-41
5.068506307268386 2.445763294672792 0.189090138882341 1.515620597e-39
8.345972529079505 8.927293434829080 0.103478385452000 8.727819329e-40
5.703723734401978 0.408027146412844 0.154289179915268 1.240118312e-39
3.188610910392506 4.210947966965569 0.956920606329371 7.484836763e-39
0.556888066809069 3.111768106620788 0.141110094715229 1.148284218e-39
8.546873745613974 4.716190697991034 0.094770982127123 7.809478381e-40
6.534693783575920 5.134928397730248 0.096182878926855 7.809478381e-40
6.629478766176187 2.719121018751596 0.094284826176827 7.809478381e-40
5.015948930320837 1.942274002650973 0.161614756457068 1.331952407e-39
1.613200768103652 9.392401620106952 0.118017792417541 9.646160278e-40
7.780781890632316 1.864847110200890 0.160880274811814 1.331952407e-39
5.955434853179439 7.886156556261120 0.201401756889356 1.607454692e-39
8.859813981623724 9.759161033509942 0.194871740151226 1.515620597e-39
3.126779176725605 1.551186407844311 1.155080528196910 9.046016375e-39
5.782361772846437 7.985711718475784 0.097031875409985 7.809478381e-40
3.171942836025886 7.330702305505487 0.997292198813847 7.760339047e-39
6.731259717476386 4.791069506852261 0.195389124973448 1.607454692e-39
8.464175958522761 2.063652178868558 0.000000000000000 4.627507919e-41
1.445006281044701 7.152256203401701 0.224253489768197 1.791122882e-39
1.636236299920340 6.278404023044190 0.164865631034276 1.331952407e-39
4.774806170319952 3.880931139548526 0.004800065876121 4.627507919e-41
2.310319054766644 1.957368083271614 0.079603690565621 6.891137432e-40
0.166422725028142 2.955599759195564 0.030803902021034 3.217773638e-40
9.030016722255599 0.332492268756720 0.102451124461773 8.727819329e-40
3.988574264136763 8.601281622070383 1.207262167861516 9.413352755e-39
9.898037882597970 9.029259505545559 0.123336685215213 9.646160278e-40
1.636719082487108 9.049373743589346 0.000000000000000 4.627507919e-41
3.518006036179138 4.870054838140593 0.969990555812139 7.576670858e-39
6.980762566869857 0.378943735246003 0.046163324599995 4.136114586e-40
1.247275147107092 0.619177464143070 0.147800430876019 1.148284218e-39
8.811957239904148 1.448713615536488 0.078467551709207 6.891137432e-40
4.172601969507509 6.076926028098701 0.162185097435534 1.331952407e-39
7.068474310556585 0.101050422964686 0.093013237073300 7.809478381e-40
7.513451086867631 2.541676524193632 0.194706845256189 1.515620597e-39
8.206866898480294 1.103934521361145 0.000000000000000 4.627507919e-41
3.284360605929965 3.125251532735566 1.080907827496240 8.403177711e-39
0.027734146599927 7.398763592667239 0.239776354493648 1.882956976e-39
2.660530899405094 5.991373876320707 0.210445116352571 1.699288787e-39
5.112874211325714 8.669546215930497 0.101287991801210 8.727819329e-40
8.506018470115377 5.110295704870253 0.117106056014791 9.646160278e-40
6.389371919598242 7.689859007217246 0.020036415489346 2.299432689e-40
4.939611210147186 4.718303721698995 0.218875763848023 1.699288787e-39
9.326496586880976 5.674854704373425 0.042698733789481 4.136114586e-40
3.678465572729678 1.399070656294946 1.116921292471584 8.678679996e-39
3.037995926355783 9.013204606878848 0.038562017720607 3.217773638e-40
4.429532548311927 1.307344562767532 0.077481909430333 6.891137432e-40
9.116687989962983 0.471762704106203 0.070899652091075 5.972796483e-40
1.848545902440998 2.624014245877272 0.106015393373779 8.727819329e-40
2.245505414883815 7.448814911637235 0.123010198311579 9.646160278e-40
5.364096478655011 6.719320121163565 0.188045013901966 1.515620597e-39
1.728377736590786 3.902861541678631 0.077094507513627 6.891137432e-40
7.655403252880123 5.562269055202187 0.109961248294733 8.727819329e-40
5.889246809076666 4.163268536978921 0.126312391584079 1.056450123e-39
8.086575691022219 1.662846781935126 0.181756390780242 1.423786502e-39
8.899592257730642 8.099777361440118 0.000000000000000 4.627507919e-41
9.157277638112813 5.013769884606629 0.068612311214490 5.972796483e-40
4.224391757606742 6.656306609190398 0.166117826154040 1.331952407e-39
0.149605296801778 8.849116315760764 0.009977355602841 1.381091740e-40
6.781857687247901 5.670291532223797 0.132578874622446 1.056450123e-39
1.521153166255584 4.316559127274870 0.151518405240251 1.240118312e-39
7.535282702338433 7.322745160960161 0.126392845050153 1.056450123e-39
4.582766425221348 7.239812051699162 0.087429343863452 6.891137432e-40
5.067484687230533 3.671087176529223 0.039184317388962 3.217773638e-40
3.330995669709956 4.386790445061056 1.019995462900374 7.944007237e-39
4.417617534445576 6.726607530568479 0.200112129293962 1.607454692e-39
9.929856645388387 8.513135621889029 0.038644537640080 3.217773638e-40
0.656247015670098 1.739402419741829 0.000000000000000 4.627507919e-41
7.227816423127532 0.190594436706779 0.000000000000000 4.627507919e-41
0.706805354466450 3.459923772161938 0.069565591870174 5.972796483e-40
6.199505946835483 0.849436181531081 0.118413194260511 9.646160278e-40
0.478567360270819 4.278110021981489 0.133959435712807 1.056450123e-39
3.849980732380578 8.208771203618157 1.061153427642188 8.311343617e-39
6.079774457743024 2.565041278782136 0.248213767901222 1.974791071e-39
2.113782619031636 3.569814457197159 0.074291356951837 5.972796483e-40
1.910725048121939 5.142502783969216 0.258906834147106 2.066625166e-39
7.816912222502981 1.388925101767791 0.128817833085743 1.056450123e-39
8.542156544920338 6.022455061704506 0.058176547370911 5.054455535e-40
7.807289831884491 1.312841425668867 0.054205028186404 5.054455535e-40
2.558458487962376 3.799003398865401 0.008062266100186 1.381091740e-40
8.812301989582089 9.701801444440891 0.133635128940974 1.056450123e-39
9.126530086887042 8.603531347862907 0.211849947318838 1.699288787e-39
8.659759222035284 7.393884646832752 0.071212581618015 5.972796483e-40
0.328372388409003 8.238411700423239 0.099744053022817 7.809478381e-40
9.891367731074459 9.300036869598555 0.150000463735766 1.240118312e-39
7.534131422383991 2.545708001395702 0.173558542048495 1.423786502e-39
2.012261589562265 8.024153126029310 0.211227791392544 1.699288787e-39
6.552878785049694 4.377664922278207 0.008378872306652 1.381091740e-40
9.195499626653845 8.825640756849236 0.205612123240546 1.607454692e-39
9.865680066091489 7.880392004929726 0.210992750631792 1.699288787e-39
9.270142941169160 0.808716345767250 0.173893008374326 1.423786502e-39
5.128649323552862 0.874194145056011 0.032447792744631 3.217773638e-40
6.701183710833571 1.916380935551979 0.021973889161249 2.299432689e-40
1.177279708740887 4.573381532098696 0.095455111496405 7.809478381e-40
4.576562313614897 1.769943229779632 0.041698231081678 4.136114586e-40
9.415254957949852 8.448355092864553 0.067251239523301 5.972796483e-40
4.671860824947931 6.045096511730905 0.246550637246616 1.974791071e-39
4.725825163634761 7.092596249666629 0.129592175887224 1.056450123e-39
4.194492973207937 7.493611496064117 0.143035061851442 1.148284218e-39
6.532486241864287 5.511889712545266 0.159964861662087 1.331952407e-39
4.091559338564194 0.892302589065066 0.122652491317670 9.646160278e-40
6.928908223298849 0.025804488192373 0.011098396556172 1.381091740e-40
2.579871850081152 2.322090966576872 0.171421111896774 1.331952407e-39
5.216328631740352 8.331407115738889 0.254586297646978 2.066625166e-39
9.931054440127896 6.195690273164235 0.153223829681840 1.240118312e-39
3.181111558114578 4.568960721489439 1.296344937542883 1.005619142e-38
3.798237992275400 7.509226671489868 1.103233326975601 8.586845901e-39
0.778483619633467 6.031652593448767 0.086943039414143 6.891137432e-40
6.312951348469212 3.405246316328353 0.107623466899000 8.727819329e-40
5.354090750769406 1.165755260155606 0.171538562020943 1.331952407e-39
0.801699574816229 1.427145662334326 0.218789254689038 1.699288787e-39
6.231887113160926 1.044908713752053 0.190188221685301 1.515620597e-39
4.894058877059390 4.844715505012128 0.131526269748496 1.056450123e-39
3.721901687040763 2.169446630744008 1.127239034792518 8.770514091e-39
5.197076278143877 0.252846192945985 0.092652267004143 7.809478381e-40
2.263685950122122 1.499273591754762 0.000000000000000 4.627507919e-41
6.627369815336547 5.651454843324887 0.220518225149426 1.791122882e-39
5.964607758537673 9.410920377910564 0.111174053656698 8.727819329e-40
4.744183715356183 1.803955800869570 0.047627917485803 4.136114586e-40
5.208424919873519 8.043328150288028 0.230510126934214 1.791122882e-39
0.000000000000000 1.590328626743625 0.108263255465345 8.727819329e-40
8.022836705475115 9.513618437839792 0.000000000000000 4.627507919e-41
1.871675295181745 9.830389725286222 0.000000000000000 4.627507919e-41
6.040091717089364 2.013425120014464 0.161117472533681 1.331952407e-39
9.281799079239379 3.453471246566690 0.177194356713914 1.423786502e-39
7.482656229907383 0.069725100932979 0.053214288719210 4.136114586e-40
5.419532896602582 1.503420902636807 0.027542526627945 2.299432689e-40
2.709049714546860 2.706960180473991 0.172157319537170 1.423786502e-39
8.921742813907224 3.710596785177453 0.150488742024520 1.240118312e-39
9.925772846166888 5.575211473177802 0.093239819197618 7.809478381e-40
2.330005355466691 6.416900564691232 0.086465079088409 6.891137432e-40
0.623661498629199 7.561132094235869 0.056548223355666 5.054455535e-40
8.429165994498479 3.530117405938104 0.044808451042150 4.136114586e-40
2.133638552738835 3.037420852690099 0.210103875999600 1.699288787e-39
3.162173712556156 4.861609197662526 0.984842430006047 7.668504953e-39
0.375536762588194 2.596995772465482 0.086972537653886 6.891137432e-40
1.457844491160015 8.657670382325147 0.130671270545928 1.056450123e-39
7.517475480898671 6.322380625502221 0.178898191030093 1.423786502e-39
8.623169292179441 6.205708720423436 0.000000000000000 4.627507919e-41
6.522939908742738 9.225429069673156 0.000000000000000 4.627507919e-41
3.207115919751336 7.709520239770052 0.967987275748826 7.576670858e-39
4.390414728638737 6.227431300645440 0.047045845657812 4.136114586e-40
3.054352576351746 5.245526350679411 0.179833379410490 1.423786502e-39
4.395803610483120 6.010727039833021 0.245451226186459 1.974791071e-39
1.700651753625221 3.202372020172605 0.082211909697687 6.891137432e-40
2.438897428643497 5.804450891098908 0.287137959095989 2.250293356e-39
5.535752171553460 9.206113532087219 0.041524778616876 4.136114586e-40
3.039255507389734 2.402382929453832 1.146237508213261 8.954182281e-39
7.190659075117938 4.707932754778700 0.026633992353066 2.299432689e-40
6.690477167870733 7.851944737049312 0.070418551754329 5.972796483e-40
1.461983602587367 7.704441644365874 0.143943226837293 1.148284218e-39
7.905188217337973 3.293642399486790 0.150738858364277 1.240118312e-39
8.375060117271317 0.419573925332096 0.119013977763040 9.646160278e-40
5.124838961611701 3.979515263935017 0.118737943688601 9.646160278e-40
9.342829166614496 6.250950416258605 0.206983627113813 1.607454692e-39
8.857100666034096 0.576932574579358 0.213703029160197 1.699288787e-39
8.647960990711205 9.504152459536018 0.059182082414851 5.054455535e-40
5.739665688157388 4.260428066850153 0.082057333437443 6.891137432e-40
2.016209619051046 1.416161801882639 0.000000000000000 4.627507919e-41
2.911052998771202 1.786122250500795 0.190696893703425 1.515620597e-39
9.740903306000153 1.536741680799856 0.066078948339907 5.972796483e-40
6.874106374963381 1.238039965825856 0.200025317726060 1.607454692e-39
1.826342975859772 0.440283268861372 0.000000000000000 4.627507919e-41
4.217924014678242 8.602259868685948 0.002147043763247 4.627507919e-41
1.929353438950938 1.455586885233595 0.192578361277592 1.515620597e-39
5.153740815834126 8.423647072952582 0.183685208241315 1.515620597e-39
7.529675350250383 9.925754297970123 0.185793388821735 1.515620597e-39
6.455521588207329 3.706736298080473 0.000000000000000 4.627507919e-41
1.202765444447555 0.546225251792707 0.190165309458406 1.515620597e-39
6.373429214955550 6.691671994350892 0.146795148467788 1.148284218e-39
5.965318104994933 1.901904634821532 0.057438994147175 5.054455535e-40
1.563924962942887 2.541973572043895 0.000000000000000 4.627507919e-41
6.308631395167408 5.085569081995280 0.003577311949061 4.627507919e-41
1.050347839058014 0.623109234989523 0.055506688977144 5.054455535e-40
4.260177384159416 6.165702609417258 0.109845844182164 8.727819329e-40
3.488515628595473 6.566179633170422 1.209138079486658 9.413352755e-39
7.740338221005417 7.933480455961685 0.046712494504830 4.136114586e-40
9.459867372740208 6.673615315469752 0.090557939009826 7.809478381e-40
0.238941914576480 6.655107884339775 0.195272633248116 1.515620597e-39
4.511494129251060 3.779077192206129 0.273638697443103 2.158459261e-39
0.460725029639286 2.158343994154544 0.000000000000000 4.627507919e-41
7.334340468114774 3.317248844745651 0.087916852599417 6.891137432e-40
7.198574070003784 2.143806376218630 0.028471256501728 2.299432689e-40
2.094044914114571 9.679900730464380 0.161544275077944 1.331952407e-39
2.355712099489934 8.256760004773273 0.060144227770691 5.054455535e-40
1.703226501915698 7.371952969472306 0.105001161858814 8.727819329e-40
0.912422432911275 1.469918537572091 0.212376012887355 1.699288787e-39
3.913006593837177 6.730589272790946 1.189087071251056 9.229684565e-39
8.407673766810415 4.517692305208533 0.203008902581554 1.607454692e-39
7.458426246938876 2.740481215376702 0.118358328499870 9.646160278e-40
3.736274888444139 7.640074876002641 0.938476140327686 7.301168573e-39
5.590491553095352 4.706160394048102 0.081190701300416 6.891137432e-40
2.011866835558010 8.919628423027035 0.000000000000000 4.627507919e-41
5.587945539928258 5.416925286550120 0.127894520261951 1.056450123e-39
2.585244220566937 9.557252400256550 0.027463608342511 2.299432689e-40
3.056215758929739 0.506682978812261 0.983855079001051 7.668504953e-39
6.954942588199747 6.438874765046254 0.041572979094045 4.136114586e-40
4.447864322682330 8.501616914678262 0.132315303174268 1.056450123e-39
4.996012280139132 9.304429327566563 0.157062764328159 1.240118312e-39
3.116744721298027 7.620603239639075 0.955933234624191 7.484836763e-39
6.240781517900043 6.825759546421988 0.222268571349622 1.791122882e-39
2.237934617053948 0.731968579739156 0.116653716176778 9.646160278e-40
0.042855797504690 0.435469611369162 0.171667065005813 1.331952407e-39
4.357879572887617 8.408361903738717 0.000000000000000 4.627507919e-41
1.183788783390207 2.685740457611603 0.076615809790541 5.972796483e-40
8.569555740565413 7.336772645831933 0.077808309104419 6.891137432e-40
5.600969297537564 6.158538994447674 0.085417276162253 6.891137432e-40
9.157027713283643 8.264619269893407 0.076370842318679 5.972796483e-40
9.389046184912873 2.749387783731814 0.205952057834592 1.607454692e-39
9.259899322614192 6.560945034004587 0.008413398256486 1.381091740e-40
5.790840203348850 4.132206465748082 0.133966414760605 1.056450123e-39
9.568673974120989 5.790198659567452 0.103663712770935 8.727819329e-40
0.972534431462624 2.767777735236164 0.238402305067876 1.882956976e-39
1.424163481193303 3.807302780378929 0.000000000000000 4.627507919e-41
0.559601630626566 5.790270095486851 0.035515321763466 3.217773638e-40
2.685670516544481 9.688825644347373 0.063226066465612 5.054455535e-40
3.059261865460221 0.274062390961937 1.029174614857059 8.035841332e-39
4.649593871901351 1.906130392189605 0.157033036415386 1.240118312e-39
8.018834770904821 1.553921591017463 0.157692505644591 1.240118312e-39
5.872434090773242 2.996844269022873 0.125674429834405 1.056450123e-39
6.353905268205014 8.345699731947203 0.130510100799206 1.056450123e-39
8.812065636802870 1.969692786018405 0.119965275379845 9.646160278e-40
1.907316154201253 6.980650144602328 0.000000000000000 4.627507919e-41
2.097066610683644 5.752926486729579 0.185165549074093 1.515620597e-39
6.577987437367434 1.070693714958573 0.162628381679373 1.331952407e-39
3.647716503262338 9.271644614971414 1.025042304325794 8.035841332e-39
2.725021299389049 2.669616802580868 0.033236619443172 3.217773638e-40
7.176118872172990 7.503035458114055 0.000000000000000 4.627507919e-41
6.840877702405559 2.005502518621415 0.031530407326744 3.217773638e-40
0.797234173329858 9.711670843644459 0.133384036513719 1.056450123e-39
6.967156083806779 7.003865867246734 0.204622335385325 1.607454692e-39
6.630488844138268 8.958456883372552 0.275921352430195 2.158459261e-39
6.998849963831019 2.520807236469607 0.214165006959278 1.699288787e-39
9.007997874562214 7.227855313526155 0.183478291842612 1.423786502e-39
9.471337455542615 7.693414030067609 0.157115405589230 1.240118312e-39
5.943360080797809 1.306675952825959 0.018690892721762 2.299432689e-40
0.118067494930532 0.566364326150853 0.000000000000000 4.627507919e-41
6.954677288006086 9.046902724360763 0.167346537293718 1.331952407e-39
8.285652108471050 3.766501575374663 0.015711915466349 1.381091740e-40
0.923332074643555 7.656488379408835 0.116656264904321 9.646160278e-40
6.195144651949821 2.256631916199715 0.143392892814779 1.148284218e-39
2.212806794161074 6.014061085274911 0.168262683688232 1.331952407e-39
8.761783525147038 9.413941688347705 0.277153978182571 2.158459261e-39
6.323299542027871 1.781737004261541 0.174369224270098 1.423786502e-39
3.943700558966649 8.016099458812000 1.064290340664316 8.311343617e-39
9.364458130844396 9.461531498905556 0.195879040547354 1.607454692e-39
2.922175856017353 2.380681669735431 1.156881841347441 9.046016375e-39
0.202969332069795 8.692430400303063 0.215402604689677 1.699288787e-39
3.214115584552355 9.027729834636267 0.947487954679755 7.393002668e-39
9.157320687825271 2.678206752302006 0.225374355909219 1.791122882e-39
9.655535107762706 1.671778994958299 0.160001803583107 1.331952407e-39
7.877116725918752 0.141070407213880 0.213886249465339 1.699288787e-39
3.084901530952948 1.636940172443584 1.198120212082712 9.321518660e-39
8.988781235115445 0.133282171804567 0.051559304069948 4.136114586e-40
0.106156341933893 2.555894293773401 0.149699546233183 1.240118312e-39
2.647564948547240 1.472600427144487 0.038871930029987 3.217773638e-40
7.810893494310469 2.171707136915214 0.090006108913883 7.809478381e-40
4.025383451724038 9.647268103326155 0.082836767298117 6.891137432e-40
9.508764308726231 8.107713269640913 0.146838225675253 1.148284218e-39
9.360620553956457 2.851816547648875 0.112948165765323 9.646160278e-40
0.174701174730452 5.907512821311454 0.000000000000000 4.627507919e-41
3.723321568342606 7.208930368854519 1.154026545807101 8.954182281e-39
9.535066278192017 7.461971543319782 0.023892475733557 2.299432689e-40
9.391905610629962 1.044904316077846 0.000000000000000 4.627507919e-41
1.880386857029053 0.714050800307809 0.018965479068772 2.299432689e-40
4.526821917218376 0.489273078301302 0.090418757229702 7.809478381e-40
5.999067024584339 1.459272781428028 0.141048825050100 1.148284218e-39
3.312479021321189 3.687127453131448 1.058358761090241 8.219509522e-39
3.405859157865876 1.416831214784585 1.131170147074609 8.862348186e-39
1.391772068410426 0.122528230141227 0.192903476488823 1.515620597e-39
2.224940256059883 9.126526386970616 0.272882758394460 2.158459261e-39
4.629146374494254 2.557171075966973 0.155462919095303 1.240118312e-39
4.220474195795849 0.860055249470820 0.127963106061975 1.056450123e-39
8.620615731299747 0.784847753829533 0.000000000000000 4.627507919e-41
5.491435650480035 8.091903578541771 0.000000000000000 4.627507919e-41
7.610060083535968 4.437821758593887 0.003044877934318 4.627507919e-41
8.644769862263521 3.134537984909017 0.000000000000000 4.627507919e-41
4.381819941903658 2.565127238579684 0.000000000000000 4.627507919e-41
9.845351101073570 6.803352935126756 0.094783690798213 7.809478381e-40
8.960900938649909 7.014879916013149 0.115784748638708 9.646160278e-40
8.242522243798790 4.645526866285195 0.128797674419586 1.056450123e-39
7.819187910310082 2.105764327533529 0.116345058428956 9.646160278e-40
9.044628499497758 5.572851023890242 0.056427826620606 5.054455535e-40
5.561677946748546 5.099725980685642 0.183030141839421 1.423786502e-39
6.310011116555414 7.211472115074954 0.056263172739393 5.054455535e-40
4.171556901736755 7.255463332568484 0.000000000000000 4.627507919e-41
4.337333233772676 6.750145373456931 0.052697952313894 4.136114586e-40
2.714368712276074 7.688145040995418 0.092459893802126 7.809478381e-40
9.803996228659644 1.125021235537334 0.059235362451035 5.054455535e-40
0.542888693752573 4.228803189050888 0.117481893983102 9.646160278e-40
2.971052703642172 0.671675320065960 0.086633882405487 6.891137432e-40
1.405182997176087 6.967768408639903 0.052909091810647 4.136114586e-40
7.038105049805750 8.402588847773597 0.054389082060004 5.054455535e-40
9.552893138474682 3.247734812053454 0.126062861849594 1.056450123e-39
3.980600036468711 2.570302008260236 1.025362230806754 8.035841332e-39
8.805733362129757 7.554638379482587 0.164078344558544 1.331952407e-39
3.416293863566873 3.774474288123266 1.201663589815129 9.321518660e-39
5.645129508834914 0.052100021978162 0.141809508056416 1.148284218e-39
9.185597636930748 4.532884443419241 0.000000000000000 4.627507919e-41
4.594311560128740 5.996917435639745 0.099838698112927 7.809478381e-40
1.027735925507375 6.399875314348884 0.170990317334383 1.331952407e-39
4.660738920502685 3.508267611636944 0.036317514059471 3.217773638e-40
8.436074661538418 8.094751761328880 0.067452913549780 5.972796483e-40
0.414246212857944 6.307672528613177 0.066180775720768 5.972796483e-40
8.986020565436318 0.465317864627348 0.145053825737084 1.148284218e-39
4.010535076459403 1.242814847106512 0.148233827284375 1.240118312e-39
4.298384845010711 7.783312457862635 0.117105132137145 9.646160278e-40
8.974078214595917 1.535967031982185 0.147077685736389 1.148284218e-39
3.392347901230802 9.101974786042300 1.142113633970062 8.862348186e-39
7.627675684975936 2.661424249383323 0.189651660930851 1.515620597e-39
9.248853250157858 8.807760498987903 0.184011111677214 1.515620597e-39
0.868209792576083 4.224624679801165 0.010299063553258 1.381091740e-40
3.811980141657666 5.741965218584432 1.062563113714238 8.311343617e-39
8.706253350129312 8.467524361909613 0.000000000000000 4.627507919e-41
4.802786462528588 8.969315483835949 0.184794479067331 1.515620597e-39
6.055392712615469 0.894953282915476 0.109213017001315 8.727819329e-40
5.283046238342519 3.763333391026665 0.184610504452227 1.515620597e-39
0.143908446558366 0.128227862795109 0.000000000000000 4.627507919e-41
3.237126733870496 3.179993304357152 1.103784425554879 8.586845901e-39
9.190981342453449 3.998379126958579 0.024465993778065 2.299432689e-40
7.368120499795461 4.461015356079497 0.053950290629863 5.054455535e-40
6.586677921893783 2.782993944314320 0.052379516983315 4.136114586e-40
9.836674228711976 8.337238833141400 0.206564352588530 1.607454692e-39
3.567503289307062 3.974938269658651 0.976816451521252 7.668504953e-39
4.109696681745305 8.593563108730041 0.105385737359917 8.727819329e-40
7.065501250372879 9.364606106594906 0.065895418169153 5.972796483e-40
1.931106863328281 6.998499792011710 0.128651509044343 1.056450123e-39
2.140469111211290 5.004942506890166 0.135817817448691 1.056450123e-39
0.522856034689779 8.618564065262694 0.069685689635222 5.972796483e-40
3.851248811990215 3.420912658041273 1.015668681240939 7.944007237e-39
7.905970667107189 9.409363922793107 0.162402885835876 1.331952407e-39
1.668666534115683 0.934836935180219 0.084213106846782 6.891137432e-40
2.935041386106339 0.470669384189059 0.066292158527776 5.972796483e-40
3.675001133915250 2.419130358705137 1.089205831570316 8.495011806e-39
5.312880880343664 5.369779070425138 0.000000000000000 4.627507919e-41
7.959157954212396 1.161119666891587 0.080644766178567 6.891137432e-40
3.421029400250427 3.764713143483122 1.098764629696494 8.586845901e-39
8.844966252941100 6.567765016346998 0.000000000000000 4.627507919e-41
2.044602448488329 5.008192685244881 0.099429393162363 7.809478381e-40
8.683310778421664 0.088849967408950 0.031523827326149 3.217773638e-40
0.248738246210912 0.717947916105800 0.000000000000000 4.627507919e-41
0.193604933912505 9.019344480464131 0.000000000000000 4.627507919e-41
3.516598001450616 7.744757559951915 1.036960410766673 8.127675427e-39
8.905453234902650 2.599478967662564 0.083335133682809 6.891137432e-40
7.453347742138816 9.913263776186829 0.029092070553256 2.299432689e-40
3.257560959250191 4.709956245384065 1.044709692734027 8.127675427e-39
4.350288861811243 9.779820900899178 0.168199920558750 1.331952407e-39
